1.646579678129339808e+00 -1.684648038227938849e-01 1.320246382019255149e+00
1.646280908721893255e+00 -1.688540614248577043e-01 1.319910093139914586e+00
1.645980633372439383e+00 -1.692460244832527938e-01 1.319572107413324868e+00
1.645673727455735591e+00 -1.697520146017934828e-01 1.319226404838695021e+00
1.645364889344524073e+00 -1.702611414322385275e-01 1.318878525934145785e+00
1.645066987700559480e+00 -1.705114512450704167e-01 1.318543545445248100e+00
1.657490528126550400e+00 -1.727405856867553491e-01 1.323947188642367712e+00
1.657213443028350053e+00 -1.723766198280630157e-01 1.323631338515502298e+00
1.656939793051002363e+00 -1.719229815463439170e-01 1.323319641092409293e+00
1.656667497110642540e+00 -1.714721547952736957e-01 1.323009484540909053e+00
1.656396566040555740e+00 -1.710231789670929314e-01 1.322700883662905724e+00
1.656126969298750806e+00 -1.705766565725735096e-01 1.322393802026427423e+00
1.655858057825355001e+00 -1.701522982063094491e-01 1.322087448022547296e+00
1.655588151520880791e+00 -1.697964841078341003e-01 1.321779784239756506e+00
1.655319288451244653e+00 -1.694421085112814418e-01 1.321473309471949742e+00
1.655051467122532038e+00 -1.690889387125236454e-01 1.321168022596831193e+00
1.654784654749831718e+00 -1.687375898674185470e-01 1.320863884586485515e+00
1.654518883599856105e+00 -1.683869664640557651e-01 1.320560935085151488e+00
1.654256431991303122e+00 -1.679826977464368987e-01 1.320261915500253735e+00
1.653996365772546939e+00 -1.675521707554504247e-01 1.319965688987160934e+00
1.653737553975588526e+00 -1.671231420512562516e-01 1.319670892769298831e+00
1.653464151508487578e+00 -1.670328073040370231e-01 1.319358564111618559e+00
1.653167434874241337e+00 -1.674261539717739888e-01 1.319018365404148518e+00
1.652869218432530873e+00 -1.678214743936287945e-01 1.318676447137727914e+00
1.652564042987106019e+00 -1.683236793422001332e-01 1.318326304324126674e+00
1.652256639984681419e+00 -1.688344635760635204e-01 1.317973593360592721e+00
1.651947253420471329e+00 -1.693485554384101255e-01 1.317618606449689755e+00
1.651635870627937708e+00 -1.698658084589555473e-01 1.317261329479493925e+00
1.651327183649310193e+00 -1.703056721532919537e-01 1.316907329122950721e+00
1.651018768040487084e+00 -1.707147464607895737e-01 1.316553716474773372e+00
1.662838327492042412e+00 -1.729063424173002128e-01 1.321535778517984649e+00
1.662567336303031995e+00 -1.725525054942916303e-01 1.321221414979873332e+00
1.662297705937401560e+00 -1.721910522465126825e-01 1.320908654551042671e+00
1.662029092666591268e+00 -1.718314502568597801e-01 1.320597072639963399e+00
1.661761513893874165e+00 -1.714729908469889430e-01 1.320286691341852947e+00
1.661498286004138292e+00 -1.710386554640899170e-01 1.319981569882533234e+00
1.661236497290551561e+00 -1.706016500053891827e-01 1.319678129799035649e+00
1.660975945089918415e+00 -1.701665604174489033e-01 1.319376123347849150e+00
1.660716584841136489e+00 -1.697340615090003890e-01 1.319075496925147917e+00
1.660458463600607670e+00 -1.693028962256424297e-01 1.318776308555657417e+00
1.660201518450229230e+00 -1.688741105755738880e-01 1.318478482310418975e+00
1.659945759926156450e+00 -1.684472349599406837e-01 1.318182031671866650e+00
1.659687193150624740e+00 -1.680952317888704528e-01 1.317882118591781948e+00
1.659429294706840974e+00 -1.677496903333471900e-01 1.317582966241505504e+00
1.659172315137438902e+00 -1.674056848268880571e-01 1.317284878955895078e+00
1.658905157739660741e+00 -1.672495694968268165e-01 1.316974460460349050e+00
1.658606558792813601e+00 -1.676140762092368230e-01 1.316626104058028934e+00
1.658296983558227744e+00 -1.681323579632806320e-01 1.316264576402268016e+00
1.657992136329476063e+00 -1.685487655654039074e-01 1.315908815119674724e+00
1.657686028591840444e+00 -1.689614889403332210e-01 1.315551596896155084e+00
1.657378310242565655e+00 -1.693759008085850282e-01 1.315192500398123965e+00
1.657068895134387487e+00 -1.697930572463110799e-01 1.314831422644309633e+00
1.656757803728624800e+00 -1.702124135380970182e-01 1.314468388860426273e+00
1.656436583954767228e+00 -1.707501731981525550e-01 1.314093262541836671e+00
1.656135452012887699e+00 -1.709914264638982828e-01 1.313742280398717543e+00
1.664077141985128350e+00 -1.730160972517824358e-01 1.318651779848728056e+00
1.663812844025408300e+00 -1.726367956365859879e-01 1.318342576339293082e+00
1.663552619826845547e+00 -1.722013567862535066e-01 1.318038302364306524e+00
1.663293588861214145e+00 -1.717678430864406636e-01 1.317735423797020911e+00
1.663032621341417494e+00 -1.713920274150723400e-01 1.317430120000913529e+00
1.662771484703580605e+00 -1.710382469163321817e-01 1.317124559544875284e+00
1.662511311073184839e+00 -1.706854982623863537e-01 1.316820126640499966e+00
1.662252048175185237e+00 -1.703345130014166375e-01 1.316516758001813558e+00
1.661995088392291153e+00 -1.699627985251643270e-01 1.316216147233915779e+00
1.661742483876946341e+00 -1.695398486638659552e-01 1.315920783463030874e+00
1.661490976451118096e+00 -1.691190536422382817e-01 1.315626701650636443e+00
1.661240574669403225e+00 -1.687000924259195733e-01 1.315333912684654161e+00
1.660991277949188216e+00 -1.682828071793140978e-01 1.315042416297919958e+00
1.660743060623846024e+00 -1.678674104104816156e-01 1.314752181804716757e+00
1.660495914921467087e+00 -1.674538477919032542e-01 1.314463200226616113e+00
1.660245923174251903e+00 -1.670950270044135044e-01 1.314170733760107401e+00
1.659938045627546321e+00 -1.675166806228672312e-01 1.313808266861064000e+00
1.659619987091606630e+00 -1.680503718546745850e-01 1.313433554851682006e+00
1.659299706657530571e+00 -1.685879706338540007e-01 1.313056224700220431e+00
1.658977193053775112e+00 -1.691293136578321255e-01 1.312676263608420157e+00
1.658652443274748700e+00 -1.696741489470762754e-01 1.312293668713800043e+00
1.658325392841337065e+00 -1.702229781664375829e-01 1.311908363013383205e+00
1.657996136500539563e+00 -1.707743967946768748e-01 1.311520461418672179e+00
1.657677228729665053e+00 -1.711837954610537227e-01 1.311145080768357118e+00
1.668771473089199153e+00 -1.729926516223046773e-01 1.315293017699388889e+00
1.668508714476723664e+00 -1.727083455703312398e-01 1.314979671792229743e+00
1.668256555021355725e+00 -1.722830989410284730e-01 1.314679374816139834e+00
1.668005487471009962e+00 -1.718596338369809406e-01 1.314380378351733158e+00
1.667755484148906175e+00 -1.714381773352733895e-01 1.314082648703739808e+00
1.667506555702237048e+00 -1.710184234369706013e-01 1.313786199421657974e+00
1.667258698966002761e+00 -1.706002735187391872e-01 1.313491026986737920e+00
1.667011867675441295e+00 -1.701841909726700963e-01 1.313197074848648338e+00
1.666766080780674342e+00 -1.697697810409134755e-01 1.312904366720745397e+00
1.666521335802097603e+00 -1.693569449604564736e-01 1.312612899903996100e+00
1.666275765850802948e+00 -1.689681305643158660e-01 1.312320382398309615e+00
1.666027353261022137e+00 -1.686258446933542599e-01 1.312024341802177752e+00
1.665779769280286038e+00 -1.682847173183215916e-01 1.311729288638836088e+00
1.665533041653162627e+00 -1.679443387479480354e-01 1.311435257174868418e+00
1.665287095439391907e+00 -1.676054801909158953e-01 1.311142155754010163e+00
1.665029111122894090e+00 -1.674091373419106521e-01 1.310834281016219238e+00
1.664729700133013912e+00 -1.676655305325503997e-01 1.310475668146864558e+00
1.664401065980915639e+00 -1.682214232450912061e-01 1.310081316979843757e+00
1.664070012911719632e+00 -1.687814938993504876e-01 1.309684062952899186e+00
1.663746763495151715e+00 -1.692404940135753266e-01 1.309296408988466665e+00
1.663422740767629859e+00 -1.696899968321158858e-01 1.308907856083972865e+00
1.663096778720104751e+00 -1.701419964130339857e-01 1.308516978157308053e+00
1.662759249313646714e+00 -1.706904501618829728e-01 1.308112013319252531e+00
1.662427649514982786e+00 -1.711623768922455879e-01 1.307714342362767290e+00
1.673523897706236774e+00 -1.728248001087347996e-01 1.311666420914371356e+00
1.673278589801670879e+00 -1.724077971879685867e-01 1.311368950834673530e+00
1.673034282148206930e+00 -1.719925418945036089e-01 1.311072693571069481e+00
1.672790988376965604e+00 -1.715787582095756325e-01 1.310777666463145197e+00
1.672548666893962643e+00 -1.711668046583060820e-01 1.310483817910399917e+00
1.672307314321438865e+00 -1.707565968407135371e-01 1.310191144029767329e+00
1.672066923719304654e+00 -1.703480946086253223e-01 1.309899636482169116e+00
1.671827514930127156e+00 -1.699409778511188074e-01 1.309609320287385748e+00
1.671583457249050886e+00 -1.695936176815365792e-01 1.309313183499051458e+00
1.671339766049984021e+00 -1.692518170598455718e-01 1.309017477757366654e+00
1.671096822349882327e+00 -1.689114534848265015e-01 1.308722678012167018e+00
1.670854653712239291e+00 -1.685721619958931716e-01 1.308428818802879867e+00
1.670618903535840305e+00 -1.681789650150622983e-01 1.308142918340680083e+00
1.670384744641244756e+00 -1.677805858881861456e-01 1.307858968881532746e+00
1.670142557154714380e+00 -1.674679683656754015e-01 1.307565014518478952e+00
1.669871009596188616e+00 -1.674353522315388532e-01 1.307234563854529519e+00
1.669554338877412336e+00 -1.678144554303151459e-01 1.306848072825620877e+00
1.669218150421974967e+00 -1.683562554597768379e-01 1.306437383554618359e+00
1.668888643838034813e+00 -1.688208376130548860e-01 1.306035036774447988e+00
1.668557006268625686e+00 -1.692886467586221522e-01 1.305630087334392009e+00
1.668215951604667957e+00 -1.698224142565681327e-01 1.305213496457553690e+00
1.667865370966333805e+00 -1.704202646143336553e-01 1.304785136688105363e+00
1.667512009138072848e+00 -1.710228606526916495e-01 1.304353378691615273e+00
1.674815678538276842e+00 -1.729235549436922703e-01 1.308424563416104247e+00
1.674565402862120855e+00 -1.726097859622102992e-01 1.308118185340382045e+00
1.674325463399955360e+00 -1.722011753417715396e-01 1.307824752795003986e+00
1.674086486137416729e+00 -1.717938337509912206e-01 1.307532497968146190e+00
1.673844484231104879e+00 -1.714260550778944348e-01 1.307236422918914176e+00
1.673601044997999221e+00 -1.710809579583585371e-01 1.306938521955329335e+00
1.673358355738334025e+00 -1.707370766199178269e-01 1.306641538333837227e+00
1.673116419076191352e+00 -1.703943111649507680e-01 1.306345475546557333e+00
1.672876347590558588e+00 -1.700425104859545899e-01 1.306051726880445019e+00
1.672642426910152524e+00 -1.696437768535183355e-01 1.305765655979646667e+00
1.672409344259339070e+00 -1.692468651064193697e-01 1.305480608871739667e+00
1.672177142430601782e+00 -1.688513092420793060e-01 1.305196639350832521e+00
1.671945832929532028e+00 -1.684569369696237995e-01 1.304913762007961386e+00
1.671715334693419930e+00 -1.680643668141956759e-01 1.304631875656336426e+00
1.671485685823439482e+00 -1.676731917467730870e-01 1.304351028171271576e+00
1.671256894943416116e+00 -1.672832687039128852e-01 1.304071230526998804e+00
1.671003679838578782e+00 -1.670994558729868296e-01 1.303760891712872239e+00
1.670667991758434168e+00 -1.675780242533961295e-01 1.303347515994846884e+00
1.670322970232670290e+00 -1.681157685681276548e-01 1.302922522423007212e+00
1.669966788777525801e+00 -1.687246143453727254e-01 1.302483636536187595e+00
1.669607718265541108e+00 -1.693381584658899264e-01 1.302041191411997811e+00
1.669245668251258863e+00 -1.699568596946094967e-01 1.301595074778971739e+00
1.668880609383481151e+00 -1.705806946098585575e-01 1.301145250670204145e+00
1.668528117503893959e+00 -1.710939091621549446e-01 1.300711153293428568e+00
1.680110044188181551e+00 -1.728964837897904450e-01 1.305031178776841827e+00
1.679865384050259314e+00 -1.725777661526875784e-01 1.304726420377838148e+00
1.679631047126503463e+00 -1.721752618407113300e-01 1.304434785213708370e+00
1.679397549709862103e+00 -1.717744674304356456e-01 1.304144194098332932e+00
1.679164148302765502e+00 -1.713816371989803911e-01 1.303853701274016341e+00
1.678925832824774700e+00 -1.710385864244926002e-01 1.303556934619460206e+00
1.678688258240942810e+00 -1.706963536111172908e-01 1.303261091252138737e+00
1.678451417993177985e+00 -1.703549417155073853e-01 1.302966162971781250e+00
1.678215218769523176e+00 -1.700150549964277724e-01 1.302672031301203903e+00
1.677979773345090964e+00 -1.696757167517341236e-01 1.302378839770917951e+00
1.677748181617609191e+00 -1.693124657165613889e-01 1.302090527182272028e+00
1.677520963141557075e+00 -1.689221476440992686e-01 1.301807751123660761e+00
1.677294528841182908e+00 -1.685333313159390334e-01 1.301525950560546763e+00
1.677068894127306642e+00 -1.681458298822605946e-01 1.301245145251566315e+00
1.676844054209758461e+00 -1.677596170468748926e-01 1.300965329284393901e+00
1.676619984816459796e+00 -1.673748120882503077e-01 1.300686472014709327e+00
1.676380369330592535e+00 -1.671107324717726328e-01 1.300387866817805493e+00
1.676049126102636455e+00 -1.675131834480168558e-01 1.299972990847753307e+00
1.675702211363504723e+00 -1.680160382014944387e-01 1.299538265502583556e+00
1.675342496191396302e+00 -1.685954954796290706e-01 1.299087341953382380e+00
1.674972202806483068e+00 -1.692333646487244880e-01 1.298623045584439861e+00
1.674598687101026551e+00 -1.698768307076269635e-01 1.298154708748717079e+00
1.674221921947393943e+00 -1.705258384589807830e-01 1.297682297708918853e+00
1.673860708107617778e+00 -1.710532337304074280e-01 1.297229643529404619e+00
1.685434909046739316e+00 -1.727933633057793239e-01 1.301483305541381252e+00
1.685198612415921282e+00 -1.724473561062445370e-01 1.301183896483388613e+00
1.684966210495612460e+00 -1.720772049932425274e-01 1.300889503449758289e+00
1.684737920924272769e+00 -1.716821059495640678e-01 1.300600405257686720e+00
1.684510425938969380e+00 -1.712884092104953460e-01 1.300312313228827010e+00
1.684283729962496645e+00 -1.708960155811124204e-01 1.300025233254302748e+00
1.684057783576215828e+00 -1.705052336472054342e-01 1.299739101681447684e+00
1.683832665342581025e+00 -1.701154109166731210e-01 1.299454020140871524e+00
1.683608274770027613e+00 -1.697272341709102073e-01 1.299169859035442132e+00
1.683384686261197416e+00 -1.693400950419658713e-01 1.298886714588509239e+00
1.683161813159632203e+00 -1.689545630763985840e-01 1.298604475106750478e+00
1.682935010886276395e+00 -1.686033490116626843e-01 1.298317148161347356e+00
1.682706613896801873e+00 -1.682689866351464725e-01 1.298027748448200791e+00
1.682478889516068943e+00 -1.679352527570639741e-01 1.297739201958869382e+00
1.682251787634361673e+00 -1.676024542124941175e-01 1.297451444167036394e+00
1.682025273437840029e+00 -1.672707811895058350e-01 1.297164430305335792e+00
1.681713209206277204e+00 -1.675151234256663235e-01 1.296767111888908142e+00
1.681338482199309148e+00 -1.681657388011389420e-01 1.296289041256600383e+00
1.680973526970784837e+00 -1.687364222018480076e-01 1.295823608341313715e+00
1.680612244473342454e+00 -1.692690759377100396e-01 1.295362947018890543e+00
1.680248370768758326e+00 -1.698049078293934755e-01 1.294898983464280562e+00
1.679881644412184238e+00 -1.703454266141547768e-01 1.294431381265108927e+00
1.679512144510654226e+00 -1.708899449934041248e-01 1.293960242838731567e+00
1.691879888931750564e+00 -1.732326148654502462e-01 1.299197055050607563e+00
1.691642684271484010e+00 -1.729175146846493871e-01 1.298891056986118953e+00
1.691411829254424903e+00 -1.725601911615782524e-01 1.298593387422152023e+00
1.691180103023300907e+00 -1.722154700581615683e-01 1.298294556669615130e+00
1.690949069659205550e+00 -1.718714743288327351e-01 1.297996620256160805e+00
1.690718691003822993e+00 -1.715284390140821846e-01 1.297699528182194584e+00
1.690488988522908631e+00 -1.711861630340304474e-01 1.297403308761420737e+00
1.690259894419267717e+00 -1.708450841325185598e-01 1.297107873103232389e+00
1.690031435951377947e+00 -1.705049574354720598e-01 1.296813257133650810e+00
1.689803643979587378e+00 -1.701655240890575793e-01 1.296519501476047553e+00
1.689576446924795139e+00 -1.698272355038290271e-01 1.296226512310415968e+00
1.689353146750883328e+00 -1.694677583747789817e-01 1.295938621672946267e+00
1.689134039135228971e+00 -1.690857897839866397e-01 1.295656215590134552e+00
1.688915669189217317e+00 -1.687048538626631233e-01 1.295374760970722461e+00
1.688698001016186279e+00 -1.683251409587976644e-01 1.295094210862011375e+00
1.688481022138325960e+00 -1.679466820544287531e-01 1.294814549038467932e+00
1.688264701861599049e+00 -1.675696234269998253e-01 1.294535735397097209e+00
1.688032580184624765e+00 -1.672981550740336720e-01 1.294236194474020607e+00
1.687671320698499899e+00 -1.678395042692735484e-01 1.293767394611820221e+00
1.687292303671455107e+00 -1.684778766283474838e-01 1.293275360196012969e+00
1.686904222530750674e+00 -1.691569056829826667e-01 1.292771490037349702e+00
1.686512525941053386e+00 -1.698421901337493767e-01 1.292262925905203641e+00
1.686117158228896296e+00 -1.705338283441919511e-01 1.291749595512630799e+00
1.685729801689738183e+00 -1.711619132375817864e-01 1.291246800839966014e+00
1.693987556009095785e+00 -1.734595021647024615e-01 1.296680575413173164e+00
1.693759930381962597e+00 -1.730871579397619542e-01 1.296385111510413912e+00
1.693535842050897244e+00 -1.726958929592423420e-01 1.296094306148414699e+00
1.693312537128474959e+00 -1.723056257744598196e-01 1.295804518440675679e+00
1.693089904000726786e+00 -1.719170839396606254e-01 1.295515601039863185e+00
1.692868057026534645e+00 -1.715294144716588143e-01 1.295227705208800151e+00
1.692640609166562671e+00 -1.711858720513035059e-01 1.294932394690783806e+00
1.692413587757496396e+00 -1.708446017648367343e-01 1.294637633444591707e+00
1.692187117181553235e+00 -1.705046922287215827e-01 1.294343585946544861e+00
1.691961340555235171e+00 -1.701651475331809604e-01 1.294050441303050691e+00
1.691736129157769719e+00 -1.698267791076585875e-01 1.293758029658190756e+00
1.691511560388037738e+00 -1.694890398607718229e-01 1.293466453305706532e+00
1.691287565361295542e+00 -1.691523358109171260e-01 1.293175621424001331e+00
1.691064173444529306e+00 -1.688164377783478165e-01 1.292885572884376888e+00
1.690841346088800323e+00 -1.684815491811805788e-01 1.292596256926268783e+00
1.690619078507534789e+00 -1.681476569623153727e-01 1.292307667350765632e+00
1.690388674624433873e+00 -1.678678487915453987e-01 1.292008333782537877e+00
1.690099077374504155e+00 -1.679493828739142269e-01 1.291630922512603252e+00
1.689728987755439338e+00 -1.685092544477879151e-01 1.291147374899981770e+00
1.689355950753366642e+00 -1.690735158271317873e-01 1.290659976515389440e+00
1.688979902044779990e+00 -1.696423713639013398e-01 1.290168643025278783e+00
1.688600867108007053e+00 -1.702154942219741007e-01 1.289673408501093022e+00
1.688200954057860192e+00 -1.708958549244800618e-01 1.289150690004315258e+00
1.687798164295678305e+00 -1.715775934068019537e-01 1.288624220954784683e+00
1.700461758715019922e+00 -1.736500663625874796e-01 1.294406948249797518e+00
1.700240764349259415e+00 -1.732602832285476402e-01 1.294114517103619022e+00
1.700020452612655442e+00 -1.728719326392779976e-01 1.293822988626706083e+00
1.699800829834010596e+00 -1.724849153081830511e-01 1.293532371493697042e+00
1.699581942479711838e+00 -1.720988722240942570e-01 1.293242728389223384e+00
1.699363719416053797e+00 -1.717142244299673937e-01 1.292953963700882891e+00
1.699146174339152715e+00 -1.713308294308832080e-01 1.292666096004800647e+00
1.698924340867156602e+00 -1.709802926871736017e-01 1.292372443874564292e+00
1.698701755370874533e+00 -1.706392950944976283e-01 1.292077767110149544e+00
1.698479681250734341e+00 -1.702996465656897163e-01 1.291783765810418538e+00
1.698258209934148333e+00 -1.699607293290217036e-01 1.291490563073113274e+00
1.698037295723967555e+00 -1.696227895729758295e-01 1.291198097541672141e+00
1.697816979101136603e+00 -1.692855413395843722e-01 1.290906423753349408e+00
1.697597211440877718e+00 -1.689492448139911229e-01 1.290615476425543529e+00
1.697378000451219338e+00 -1.686138151796241214e-01 1.290325266025256656e+00
1.697159361656185084e+00 -1.682791248030798825e-01 1.290035813515781671e+00
1.696893317011409774e+00 -1.682250971265104034e-01 1.289682641565736310e+00
1.696573948957517786e+00 -1.684780386838095612e-01 1.289257819938905314e+00
1.696195842465517467e+00 -1.690603776263543689e-01 1.288754096316850006e+00
1.695814596103789151e+00 -1.696475067818561944e-01 1.288246189800018149e+00
1.695430180349023264e+00 -1.702394129067161810e-01 1.287734061216163184e+00
1.695042499061028884e+00 -1.708364535097222636e-01 1.287217581915788056e+00
1.694651505523186330e+00 -1.714386995130010582e-01 1.286696689664552196e+00
1.694302545540955496e+00 -1.717978631573813808e-01 1.286232280127445060e+00
1.706549033541949090e+00 -1.737918891561185675e-01 1.291668215043984658e+00
1.706331395839318699e+00 -1.734052959888457701e-01 1.291375098455199488e+00
1.706114468475386392e+00 -1.730196598780760486e-01 1.291082939386156259e+00
1.705898203775467747e+00 -1.726352422878619786e-01 1.290791672686863123e+00
1.705681591293866539e+00 -1.722583157288779254e-01 1.290499915542095311e+00
1.705460515247831932e+00 -1.719141361799014223e-01 1.290202036218421444e+00
1.705240022761931762e+00 -1.715707839780618582e-01 1.289904943408220594e+00
1.705020022583874972e+00 -1.712287774555283359e-01 1.289608512361782422e+00
1.704800623098922774e+00 -1.708874143085830910e-01 1.289312891486685819e+00
1.704581811750367937e+00 -1.705467394377094548e-01 1.289018063688689208e+00
1.704363549028495628e+00 -1.702069551195805053e-01 1.288723975014844703e+00
1.704145838305721750e+00 -1.698680053840573856e-01 1.288430630175639635e+00
1.703928628966398406e+00 -1.695301490100145636e-01 1.288137960053260755e+00
1.703712010838083213e+00 -1.691928293555133578e-01 1.287846087575865495e+00
1.703495876108098050e+00 -1.688566338291073443e-01 1.287554865422226635e+00
1.703280422512805092e+00 -1.685204070777901741e-01 1.287264564002391642e+00
1.703025092273547259e+00 -1.684105797503132329e-01 1.286919748083226844e+00
1.702683287646802768e+00 -1.687789002684713657e-01 1.286456749728618121e+00
1.702296616000233298e+00 -1.693844332928163554e-01 1.285932462279780752e+00
1.701906550377009220e+00 -1.699954305174205538e-01 1.285403572537912709e+00
1.701513153210000961e+00 -1.706113636884909468e-01 1.284870166326222973e+00
1.701116242633106790e+00 -1.712330268844643733e-01 1.284331995667931325e+00
1.700715862493756836e+00 -1.718599906968792113e-01 1.283789120996638111e+00
1.708865993377250092e+00 -1.740927474448383527e-01 1.289370641705647857e+00
1.708638978631147776e+00 -1.737755747574178389e-01 1.289062103283264094e+00
1.708417684465082909e+00 -1.734272730766247828e-01 1.288761446390270127e+00
1.708196885443560298e+00 -1.730803248867929800e-01 1.288461460650671242e+00
1.707976671204829877e+00 -1.727341430338214245e-01 1.288162269834421503e+00
1.707757047946065754e+00 -1.723886575677683053e-01 1.287863882578412111e+00
1.707537951668476106e+00 -1.720442137444840314e-01 1.287566210716477366e+00
1.707319407229006991e+00 -1.717006266047497176e-01 1.287269288630723096e+00
1.707101420763821986e+00 -1.713578259998585207e-01 1.286973124875429697e+00
1.706887608806282097e+00 -1.709951060741445594e-01 1.286682704926390697e+00
1.706676827457487278e+00 -1.706194782896985340e-01 1.286396450632385058e+00
1.706466636785413549e+00 -1.702449781135350060e-01 1.286110998310071807e+00
1.706257042293234827e+00 -1.698715355376444747e-01 1.285826355650634634e+00
1.706048075727993441e+00 -1.694989383277771822e-01 1.285542566501160833e+00
1.705839660761562904e+00 -1.691275723733124126e-01 1.285259525780850787e+00
1.705631815897695747e+00 -1.687572963290893957e-01 1.284977259094053359e+00
1.705424568415495612e+00 -1.683879266129624519e-01 1.284695804120326690e+00
1.705127772850478118e+00 -1.684993572857494959e-01 1.284290991939505577e+00
1.704732970836248862e+00 -1.691238674513874940e-01 1.283751206505049813e+00
1.704334613156824219e+00 -1.697540353826582638e-01 1.283206559565213567e+00
1.703926958059547969e+00 -1.704194635475263786e-01 1.282649144894416615e+00
1.703496459692523279e+00 -1.711889164793453377e-01 1.282060313175262367e+00
1.703061385177507825e+00 -1.719665299027753613e-01 1.281465222293821871e+00
1.713872385301060675e+00 -1.740095564928095251e-01 1.285370742343816541e+00
1.713654367055376104e+00 -1.736611517699569451e-01 1.285069467445528524e+00
1.713436863032061552e+00 -1.733137403536775811e-01 1.284768902670905710e+00
1.713219939888978471e+00 -1.729669098932548610e-01 1.284469141553344462e+00
1.713006876245983801e+00 -1.726023521460943455e-01 1.284174779205143668e+00
1.712796869326223215e+00 -1.722249625670084217e-01 1.283884689374048538e+00
1.712587323530554428e+00 -1.718492889566394788e-01 1.283595234080847858e+00
1.712378477522889186e+00 -1.714739815193278838e-01 1.283306747868938835e+00
1.712170127049232882e+00 -1.711001217321456991e-01 1.283018944630243796e+00
1.711962359135102751e+00 -1.707271991873436090e-01 1.282731946401298728e+00
1.711755202202419834e+00 -1.703550309710680222e-01 1.282445793082770402e+00
1.711548540050698675e+00 -1.699841993082905345e-01 1.282160321997639407e+00
1.711342478751723739e+00 -1.696141102160411418e-01 1.281875681814161672e+00
1.711136958005729847e+00 -1.692450480305528193e-01 1.281591788163280121e+00
1.710931929666752227e+00 -1.688772254744245471e-01 1.281308573720209454e+00
1.710727455575418610e+00 -1.685102900035846119e-01 1.281026125176734309e+00
1.710493573138244017e+00 -1.682950464759240261e-01 1.280702493993633784e+00
1.710085235558737260e+00 -1.689520399000741246e-01 1.280134636236718748e+00
1.709672982668008823e+00 -1.696154695566278459e-01 1.279561333248316224e+00
1.709231077828847090e+00 -1.704115794687472984e-01 1.278946561964765305e+00
1.708784311427658187e+00 -1.712163176482171256e-01 1.278325027706093131e+00
1.708332578106363631e+00 -1.720299323567337502e-01 1.277696583739740266e+00
1.719246831232473349e+00 -1.739539591380184214e-01 1.281811347800775991e+00
1.719032750572217605e+00 -1.736054784307798360e-01 1.281509758391977005e+00
1.718819177059661474e+00 -1.732577901816064192e-01 1.281208883526201214e+00
1.718606099511346796e+00 -1.729109236135993877e-01 1.280908707318195727e+00
1.718393495763956835e+00 -1.725649643443789572e-01 1.280609198210494348e+00
1.718181392222303039e+00 -1.722197434230254565e-01 1.280310393983908668e+00
1.717974239229773215e+00 -1.718523579007308622e-01 1.280018647006281318e+00
1.717768811073779878e+00 -1.714797869143607767e-01 1.279729351892710199e+00
1.717563854616822372e+00 -1.711084852048862237e-01 1.279440719913846447e+00
1.717359488413777058e+00 -1.707378193998490834e-01 1.279152920357442769e+00
1.717155580280902649e+00 -1.703684239900241093e-01 1.278865764671810679e+00
1.716952230674202218e+00 -1.699997649358565288e-01 1.278579396293566095e+00
1.716749365376266878e+00 -1.696321804311339276e-01 1.278293709405936784e+00
1.716547017943702791e+00 -1.692654744111502241e-01 1.278008751971478452e+00
1.716345196901129633e+00 -1.688995775773583230e-01 1.277724536228037833e+00
1.716143905324173602e+00 -1.685344488308782862e-01 1.277441066635199185e+00
1.715907127819350064e+00 -1.683409887670932747e-01 1.277106974959144603e+00
1.715540591219200106e+00 -1.687592057846337701e-01 1.276587820919103056e+00
1.715084041817948046e+00 -1.695893124341738556e-01 1.275940324821856153e+00
1.714645638795244453e+00 -1.703202444751919509e-01 1.275318746562067229e+00
1.714207081678100542e+00 -1.710384271127910194e-01 1.274696985579484076e+00
1.713740844720347267e+00 -1.718698412584962476e-01 1.274035795042115060e+00
1.720079154254541720e+00 -1.736713071700733135e-01 1.277403566584933481e+00
1.719843974058901326e+00 -1.734400648799139522e-01 1.277068726317466929e+00
1.719638256408860144e+00 -1.730659801709430179e-01 1.276776306113300619e+00
1.719433081013955977e+00 -1.726926742371447943e-01 1.276484657275205548e+00
1.719228302643321049e+00 -1.723208201855818411e-01 1.276193570785597586e+00
1.719024126652802353e+00 -1.719493959940864847e-01 1.275903342387658013e+00
1.718820389703619611e+00 -1.715791582421524464e-01 1.275613737003976178e+00
1.718617081505531274e+00 -1.712101206447825819e-01 1.275324739918175743e+00
1.718414409892645711e+00 -1.708412784475610013e-01 1.275036650361106583e+00
1.718212170200785538e+00 -1.704735678255421827e-01 1.274749173812294689e+00
1.718010415938822755e+00 -1.701067100286736133e-01 1.274462387366753768e+00
1.717809061970509088e+00 -1.697410671849571839e-01 1.274176168584871371e+00
1.717608266585763266e+00 -1.693758882059682169e-01 1.273890745326938578e+00
1.717407939115263682e+00 -1.690115633020967123e-01 1.273605987183389132e+00
1.717208023968835873e+00 -1.686483146876027184e-01 1.273321814245770067e+00
1.717008555007560000e+00 -1.682859618085543463e-01 1.273038275312197820e+00
1.716809601754845982e+00 -1.679241724860797702e-01 1.272755470468773575e+00
1.716489938981822450e+00 -1.680921649303433463e-01 1.272299020989050566e+00
1.716074030357509939e+00 -1.686724669253248932e-01 1.271704146453342066e+00
1.715650671669351146e+00 -1.692740813100262198e-01 1.271098586061928160e+00
1.715190507204588766e+00 -1.700219331909598175e-01 1.270440121414568635e+00
1.714739459778850339e+00 -1.707180428352669255e-01 1.269794804180812031e+00
1.714340744245871795e+00 -1.711814058519323667e-01 1.269224776539749300e+00
1.713956285007316893e+00 -1.715761354249027981e-01 1.268675273724727992e+00
1.723713180051342331e+00 -1.730791136258067464e-01 1.271376678585991904e+00
1.723508489096934104e+00 -1.727182066371264202e-01 1.271080535318266813e+00
1.723298464803167729e+00 -1.723837800094622785e-01 1.270776577020981346e+00
1.723096916579850202e+00 -1.720142446755569821e-01 1.270485019633486479e+00
1.722895854621954159e+00 -1.716453931242109265e-01 1.270194166244422718e+00
1.722681712045410318e+00 -1.713362824937939011e-01 1.269884159948937663e+00
1.722481396388959141e+00 -1.709692917196973527e-01 1.269594384794609843e+00
1.722272496323521196e+00 -1.706418532683312006e-01 1.269292039221368462e+00
1.722063505488717894e+00 -1.703169178163309871e-01 1.268989554988839696e+00
1.721864473993688582e+00 -1.699518836519242626e-01 1.268701638583966895e+00
1.721642321824209620e+00 -1.696866273864273411e-01 1.268379884444513106e+00
1.721443971998611655e+00 -1.693232012668268449e-01 1.268092953148194146e+00
1.721246062291766243e+00 -1.689604725690876663e-01 1.267806658824414345e+00
1.721020610281846608e+00 -1.687136172076461604e-01 1.267480063818567704e+00
1.720823416218400403e+00 -1.683521053319664007e-01 1.267194804998975188e+00
1.720626573248878133e+00 -1.679915909982029887e-01 1.266910053093249333e+00
1.720398024857916486e+00 -1.677613369922341946e-01 1.266578917527817705e+00
1.720201920573837917e+00 -1.674017191011933914e-01 1.266295235457552515e+00
1.720005357455621331e+00 -1.670462550245620237e-01 1.266010875883265774e+00
1.719610586960313325e+00 -1.674764363323998084e-01 1.265436626498548822e+00
1.719224811631903327e+00 -1.678630649224669702e-01 1.264875554824806514e+00
1.718867562001853422e+00 -1.681307960614998043e-01 1.264356219698817618e+00
1.718424144955727373e+00 -1.687262992311764354e-01 1.263710897661957766e+00
1.718033276357487038e+00 -1.691091837453010116e-01 1.263142442710986968e+00
1.717674774878330091e+00 -1.693607417094245282e-01 1.262621334903132997e+00
1.717228112360481118e+00 -1.699413513603080517e-01 1.261971342638368077e+00
1.716838812711948270e+00 -1.702953581883611123e-01 1.261405244784643997e+00
1.716469560371328251e+00 -1.705670277820068026e-01 1.260868475202668648e+00
1.728095452861502457e+00 -1.727013249193781741e-01 1.269071233011977995e+00
1.727890522172352172e+00 -1.723331290197369914e-01 1.268778060367784732e+00
1.727673041879370874e+00 -1.720279273858506264e-01 1.268466684881708328e+00
1.727455309722022658e+00 -1.717261332334424073e-01 1.268154937823644746e+00
1.727252638306886467e+00 -1.713558227823299140e-01 1.267865015287150232e+00
1.727021790783632715e+00 -1.711198426611506007e-01 1.267534244824224166e+00
1.726816487317495818e+00 -1.707669247556682923e-01 1.267240492381600525e+00
1.726615093804883205e+00 -1.703988985411827861e-01 1.266952398039244532e+00
1.726378954362643103e+00 -1.701920628132752855e-01 1.266613944272552361e+00
1.726178365939795345e+00 -1.698251948035182923e-01 1.266327002527588785e+00
1.725978228181890950e+00 -1.694592472812490591e-01 1.266040705178191672e+00
1.725740469210270689e+00 -1.692637099147750734e-01 1.265699893089339945e+00
1.725541057926455402e+00 -1.688990625239288890e-01 1.265414635044433744e+00
1.725342096016693416e+00 -1.685352661996147861e-01 1.265130019744032719e+00
1.725103127683149662e+00 -1.683485455167436085e-01 1.264787445502121299e+00
1.724904850696992842e+00 -1.679860393199309743e-01 1.264503809875806128e+00
1.724707016215062394e+00 -1.676243423844396008e-01 1.264220807251977607e+00
1.724467189991500282e+00 -1.674443771828519334e-01 1.263876981522901843e+00
1.724270005333929046e+00 -1.670839475352328685e-01 1.263594908243088621e+00
1.724070683890830624e+00 -1.667351030182074867e-01 1.263309733111139588e+00
1.723768987359424631e+00 -1.668160914972399711e-01 1.262876310942878222e+00
1.723505266218215537e+00 -1.667360512657851124e-01 1.262497884694950612e+00
1.723080779503572080e+00 -1.673165816976429632e-01 1.261886699531705736e+00
1.722742326882924280e+00 -1.675348605329284868e-01 1.261400101380611094e+00
1.722353663784672806e+00 -1.679515728926567197e-01 1.260840830682891767e+00
1.721931266651220316e+00 -1.684961738187620017e-01 1.260232750585765116e+00
1.721618403268819986e+00 -1.685920965298013940e-01 1.259783251128180126e+00
1.721179328768071004e+00 -1.691863882336891167e-01 1.259151080202799200e+00
1.720802310816153202e+00 -1.695249108255511283e-01 1.258608758008741502e+00
1.720428151297765273e+00 -1.698451442748354356e-01 1.258070593383038727e+00
1.727198080195671004e+00 -1.726159746034058862e-01 1.267219099030551410e+00
1.726985686783573115e+00 -1.722353669033244716e-01 1.266927728583847612e+00
1.726764935735603412e+00 -1.719061761742802785e-01 1.266624658573346274e+00
1.726537038763034548e+00 -1.716202721298407952e-01 1.266311587615072343e+00
1.726326273190667449e+00 -1.712424957648148172e-01 1.266022450611600236e+00
1.726095894458256952e+00 -1.709762869315432088e-01 1.265705889907515536e+00
1.725877622253184196e+00 -1.706466902974067834e-01 1.265406237581463866e+00
1.725668381686594088e+00 -1.702718697539190862e-01 1.265119191860029968e+00
1.725430046068821888e+00 -1.700562097818046625e-01 1.264791486954354172e+00
1.725219869639324166e+00 -1.696930454050951942e-01 1.264503110344016523e+00
1.725012158236498339e+00 -1.693207513259853692e-01 1.264218163149529950e+00
1.724770787114186410e+00 -1.691272556059529031e-01 1.263886196637573400e+00
1.724563997724956721e+00 -1.687564439028134688e-01 1.263602514900309171e+00
1.724357688585521631e+00 -1.683869705008897710e-01 1.263319490305401693e+00
1.724115559272359599e+00 -1.682027549510231312e-01 1.262986446146938446e+00
1.723910122205519313e+00 -1.678347732546784654e-01 1.262704618149441904e+00
1.723705248800993628e+00 -1.674676091069144390e-01 1.262423564087364447e+00
1.723462582585660430e+00 -1.672909068272057098e-01 1.262089753487123822e+00
1.723258541804790545e+00 -1.669252169305266709e-01 1.261809841716909020e+00
1.723055021435757395e+00 -1.665604732958514411e-01 1.261530643821825448e+00
1.722728013981094319e+00 -1.667952848825217660e-01 1.261079145561965209e+00
1.722439995419481784e+00 -1.668372995588580376e-01 1.260682060474708432e+00
1.722036571229404123e+00 -1.674246734156886185e-01 1.260124003769777623e+00
1.721742586386568741e+00 -1.674845369832292652e-01 1.259718633206654781e+00
1.721334660690173379e+00 -1.680741323257138042e-01 1.259154364850562313e+00
1.721018835353032683e+00 -1.682247052741870641e-01 1.258718574529674283e+00
1.720625168092849044e+00 -1.687291627967281715e-01 1.258174256956769765e+00
1.720270054598476817e+00 -1.690472776954314582e-01 1.257683730112736153e+00
1.719907509990570738e+00 -1.693918712001664384e-01 1.257182868572756185e+00
1.719506247836874779e+00 -1.699031880771028624e-01 1.256628059793380769e+00
1.728517185357637098e+00 -1.733760083427181020e-01 1.271676870694379735e+00
1.728293288654217719e+00 -1.730181477661189571e-01 1.271374126034652940e+00
1.728069032373921177e+00 -1.726678973057911848e-01 1.271070863371402737e+00
1.727851286433127020e+00 -1.722794437136200008e-01 1.270776592583363396e+00
1.727634173078196334e+00 -1.718925371995841389e-01 1.270483175071722037e+00
1.727407697976069301e+00 -1.715720469661740910e-01 1.270176782808585481e+00
1.727191889794629898e+00 -1.711871447028466553e-01 1.269885130421169794e+00
1.726968507293113353e+00 -1.708558821401645889e-01 1.269582980908109615e+00
1.726748191998767723e+00 -1.705095766130422519e-01 1.269285056242382081e+00
1.726534241910083090e+00 -1.701280814170748334e-01 1.268995914599188257e+00
1.726303152949001385e+00 -1.698576510129299333e-01 1.268683060523998707e+00
1.726090361502776060e+00 -1.694782033746616012e-01 1.268395484793203298e+00
1.725878211768578252e+00 -1.690998698595782279e-01 1.268108776417512740e+00
1.725645274969672904e+00 -1.688512251147971932e-01 1.267793327656936864e+00
1.725434218791676244e+00 -1.684749047703867630e-01 1.267508096915913374e+00
1.725223812163856341e+00 -1.680995311627680178e-01 1.267223744827392862e+00
1.724979276073592471e+00 -1.679279780412350209e-01 1.266892240426379379e+00
1.724763376297550943e+00 -1.675917730272416251e-01 1.266600274435621731e+00
1.724508034411564639e+00 -1.674853312493949364e-01 1.266253838798228504e+00
1.724131699605646384e+00 -1.680651523190825614e-01 1.265740383759857979e+00
1.723817487901815326e+00 -1.682828213082118718e-01 1.265312721899660708e+00
1.723457035073271193e+00 -1.687519692935899318e-01 1.264821270441105261e+00
1.723123235764217887e+00 -1.690632122835881990e-01 1.264366637809851035e+00
1.722778166262935340e+00 -1.694283130723970299e-01 1.263896486838088196e+00
1.722424410401173223e+00 -1.698317946198542594e-01 1.263414387456070376e+00
1.722094743984486920e+00 -1.700963092311376101e-01 1.262965550363196243e+00
1.721720108115129433e+00 -1.705936850334167088e-01 1.262454723403355406e+00
1.721406200402415543e+00 -1.707590914731804410e-01 1.262027677510709767e+00
1.721082716894957843e+00 -1.709694886257526192e-01 1.261587449346613932e+00
1.724362642904448517e+00 -1.737861669126040121e-01 1.276824755875004325e+00
1.724136399162504274e+00 -1.733863299118527102e-01 1.276524519269562008e+00
1.723910926155803436e+00 -1.729878638427030935e-01 1.276225305427300283e+00
1.723686215217256068e+00 -1.725907714088148193e-01 1.275927102763834364e+00
1.723462288618216487e+00 -1.721948226640143409e-01 1.275629942070657385e+00
1.723239072244318937e+00 -1.718005144912281845e-01 1.275333722112004242e+00
1.723016625452194361e+00 -1.714073407441433772e-01 1.275038524462192679e+00
1.722794860722791643e+00 -1.710158846843261859e-01 1.274744229591485256e+00
1.722573907298089235e+00 -1.706251473808248487e-01 1.274451014644724989e+00
1.722353683933584234e+00 -1.702356685312135798e-01 1.274158768669705344e+00
1.722134137135663989e+00 -1.698477692219619861e-01 1.273867418769747184e+00
1.721915317858609518e+00 -1.694610313960194792e-01 1.273577034896274052e+00
1.721697197393647460e+00 -1.690756021769869999e-01 1.273287578043007295e+00
1.721475395518420326e+00 -1.687211819939705149e-01 1.272993063555369009e+00
1.721252482246738102e+00 -1.683794962205852341e-01 1.272697006712873335e+00
1.721027700985817033e+00 -1.680551600790161915e-01 1.272398376154082689e+00
1.720678833432187860e+00 -1.685518329660526116e-01 1.271930301219466486e+00
1.720318246175320143e+00 -1.691122547031822243e-01 1.271446285924498820e+00
1.719937549282953837e+00 -1.697884902236425630e-01 1.270934889331486684e+00
1.719580385035057279e+00 -1.702985371177587193e-01 1.270455675566127152e+00
1.719230664277743292e+00 -1.707489773291545332e-01 1.269986673707127922e+00
1.718840299395252735e+00 -1.714421998380507850e-01 1.269462290794491910e+00
1.718495572651772330e+00 -1.718368447196653159e-01 1.269000212895687207e+00
1.717599562954551518e+00 -1.740387416607730442e-01 1.284099703438204898e+00
1.717368978854829864e+00 -1.736332693800031746e-01 1.283796718714898644e+00
1.717139200651825348e+00 -1.732292885344846878e-01 1.283494792545993635e+00
1.716910269055263116e+00 -1.728263934958454706e-01 1.283193980890926733e+00
1.716682115124592123e+00 -1.724250835947363225e-01 1.282894189954157715e+00
1.716454745627103318e+00 -1.720252302815052925e-01 1.282595429353994509e+00
1.716228173671708435e+00 -1.716266614952676184e-01 1.282297717324180297e+00
1.716002375940951952e+00 -1.712294966818649344e-01 1.282001022396290990e+00
1.715777373908948800e+00 -1.708335056973638300e-01 1.281705374172208201e+00
1.715553115667530548e+00 -1.704390260721954098e-01 1.281410702228150011e+00
1.715329617109689231e+00 -1.700458712082628665e-01 1.281117028556582049e+00
1.715101929906801326e+00 -1.696906405049081468e-01 1.280817616894005528e+00
1.714873854434064482e+00 -1.693441757894419142e-01 1.280517646196574599e+00
1.714646393061439955e+00 -1.689989053454658552e-01 1.280218481827779753e+00
1.714419588483758083e+00 -1.686544683193772209e-01 1.279920182142010310e+00
1.714181561034412882e+00 -1.683948923426580035e-01 1.279606594944387110e+00
1.713845621925109919e+00 -1.688240078262140398e-01 1.279159902066710819e+00
1.713475318854988938e+00 -1.694792537046639069e-01 1.278666573765154135e+00
1.713101799296162131e+00 -1.701399658339077803e-01 1.278168961530455228e+00
1.712724932951156465e+00 -1.708067965729445914e-01 1.277666889595771682e+00
1.712344725704522563e+00 -1.714794570464289181e-01 1.277160367240409267e+00
1.711976421648931490e+00 -1.720566554452979680e-01 1.276670087324278446e+00
1.712988288998449127e+00 -1.740647341041139662e-01 1.287425313724466891e+00
1.712750778816392483e+00 -1.737034370630810842e-01 1.287114732937828743e+00
1.712513679133216726e+00 -1.733458474460772281e-01 1.286804672349797674e+00
1.712277302787915234e+00 -1.729892193239963571e-01 1.286495558383513815e+00
1.712041605148521217e+00 -1.726338619089377024e-01 1.286187330646450633e+00
1.711806655671700428e+00 -1.722791503219971432e-01 1.285880083895223347e+00
1.711572347909476211e+00 -1.719258894336442023e-01 1.285573673729973665e+00
1.711338761690431642e+00 -1.715733817661247163e-01 1.285268208945784529e+00
1.711105844007357435e+00 -1.712219942204077916e-01 1.284963617819203652e+00
1.710874956542735470e+00 -1.708612362131482487e-01 1.284661748560868455e+00
1.710649516506062895e+00 -1.704655568935308507e-01 1.284367235171777200e+00
1.710424829001918390e+00 -1.700713031903776651e-01 1.284073704322188370e+00
1.710200951885830101e+00 -1.696779835891320809e-01 1.283781234785778880e+00
1.709977759218408444e+00 -1.692864725554021066e-01 1.283489656140598845e+00
1.709755346800548859e+00 -1.688960026087276411e-01 1.283199098575446673e+00
1.709533658708846549e+00 -1.685069247569447870e-01 1.282909486615156469e+00
1.709262139588778373e+00 -1.684762142193642065e-01 1.282552376468858446e+00
1.708908677243849317e+00 -1.690161728387300777e-01 1.282084371141050561e+00
1.708552600434704916e+00 -1.695600166016176524e-01 1.281612904691357802e+00
1.708179745074564382e+00 -1.702043333059025387e-01 1.281118819668972675e+00
1.707800819406730231e+00 -1.708734553305809867e-01 1.280616613607933996e+00
1.707418509466597012e+00 -1.715485762985645701e-01 1.280109922106021703e+00
1.707032752103540885e+00 -1.722298694777713024e-01 1.279598661134734527e+00
1.702691835912085727e+00 -1.736085762131876209e-01 1.293428514482614533e+00
1.702459654291897051e+00 -1.732025279713694521e-01 1.293127614812683346e+00
1.702228297605852037e+00 -1.727978131792073657e-01 1.292827784842714767e+00
1.701997760878201538e+00 -1.723944057681192910e-01 1.292529018221720838e+00
1.701767981612447800e+00 -1.719927313109732292e-01 1.292231230955993349e+00
1.701539024689866064e+00 -1.715922096411557907e-01 1.291934511020413678e+00
1.701306936634559897e+00 -1.712229848286687950e-01 1.291633526966126322e+00
1.701073176243412588e+00 -1.708729081564293317e-01 1.291330251803915141e+00
1.700840033981285471e+00 -1.705242014793794947e-01 1.291027776095329482e+00
1.700607627130239496e+00 -1.701759365278213421e-01 1.290726258191648546e+00
1.700375811508589408e+00 -1.698291329194658583e-01 1.290425504104275367e+00
1.700144638298465738e+00 -1.694833565987553248e-01 1.290125583100462325e+00
1.699914161319343142e+00 -1.691381744432781387e-01 1.289826567886010800e+00
1.699684284648329546e+00 -1.687942269874722068e-01 1.289528329613985669e+00
1.699455081227645215e+00 -1.684509507548234697e-01 1.289230966691440772e+00
1.699222431924821697e+00 -1.681366682703659965e-01 1.288928941576875875e+00
1.698954152312674326e+00 -1.680695774211616866e-01 1.288579004621041024e+00
1.698599368951712485e+00 -1.685843263794768176e-01 1.288112849273508775e+00
1.698237535116193131e+00 -1.691327385700785724e-01 1.287637298747492443e+00
1.697872906948763250e+00 -1.696856340198911739e-01 1.287158074299020516e+00
1.697505492123361659e+00 -1.702427725661593005e-01 1.286675187295725165e+00
1.697135281810309149e+00 -1.708040297764637783e-01 1.286188626906013877e+00
1.696743284783595929e+00 -1.714905691884616723e-01 1.285672915166301999e+00
1.692308366585558499e+00 -1.730075168429718591e-01 1.298475645511343313e+00
1.692070425147297996e+00 -1.726542452231759617e-01 1.298169507028359648e+00
1.691833137004078003e+00 -1.723022313242722758e-01 1.297864207481541410e+00
1.691596606052229168e+00 -1.719506334190005203e-01 1.297559886088174075e+00
1.691363680191081631e+00 -1.715782874401742819e-01 1.297260348307921474e+00
1.691135154780027516e+00 -1.711800742513681917e-01 1.296966652521759578e+00
1.690907406996062567e+00 -1.707831396024497017e-01 1.296673956550426610e+00
1.690680414281807042e+00 -1.703875877396421323e-01 1.296382230604761432e+00
1.690454159602541084e+00 -1.699934790854477906e-01 1.296091452290652812e+00
1.690228671100863833e+00 -1.696005549320836470e-01 1.295801659489050905e+00
1.690003909482131750e+00 -1.692090352049201718e-01 1.295512800094331896e+00
1.689779874287904882e+00 -1.688188641384263944e-01 1.295224873823224820e+00
1.689554852549431496e+00 -1.684415910357716373e-01 1.294935598319003178e+00
1.689325289499288285e+00 -1.681006093661282230e-01 1.294640240408499121e+00
1.689096329043652034e+00 -1.677606357823241412e-01 1.294345657172574660e+00
1.688867988201724568e+00 -1.674215130455635470e-01 1.294051871524060315e+00
1.688556612721441752e+00 -1.676261910382114140e-01 1.293647539936692459e+00
1.688170708019135935e+00 -1.683030329053079865e-01 1.293144074546962674e+00
1.687791833551803844e+00 -1.689189122371492491e-01 1.292650051711625281e+00
1.687419444620528619e+00 -1.694790735823428207e-01 1.292164736925864865e+00
1.687044171964501516e+00 -1.700435140761687725e-01 1.291675664260703238e+00
1.686665944040843579e+00 -1.706124971493741815e-01 1.291182739610943653e+00
1.686284779473789852e+00 -1.711857245354884705e-01 1.290685988752596991e+00
1.688111561140225314e+00 -1.726805808980733381e-01 1.301524750784637252e+00
1.687876156232649416e+00 -1.723011066489170684e-01 1.301224010152157051e+00
1.687637957414445333e+00 -1.719503684970419555e-01 1.300919519279958525e+00
1.687400450456370438e+00 -1.716005986094298053e-01 1.300615913091071052e+00
1.687163685912684841e+00 -1.712513627935608740e-01 1.300313258977235487e+00
1.686927489344169473e+00 -1.709039296559094478e-01 1.300011325650341387e+00
1.686692022980142758e+00 -1.705570207763726642e-01 1.299710328746081833e+00
1.686457222021925162e+00 -1.702110750487680624e-01 1.299410182524270319e+00
1.686229122745048992e+00 -1.698224861751840842e-01 1.299118888861870325e+00
1.686002652308573158e+00 -1.694288919748720701e-01 1.298829717645940907e+00
1.685776983707121701e+00 -1.690362818489423158e-01 1.298541572490038876e+00
1.685552028833688265e+00 -1.686452241689069265e-01 1.298254336967431088e+00
1.685327836897866138e+00 -1.682553152243360939e-01 1.297968076574307128e+00
1.685104415000547196e+00 -1.678664562566328788e-01 1.297682800982115303e+00
1.684881652865120261e+00 -1.674793445452140150e-01 1.297398364545436777e+00
1.684659628873627080e+00 -1.670933885451166279e-01 1.297114871307710526e+00
1.684407414116099400e+00 -1.669126858165367044e-01 1.296791426147187343e+00
